0.346355 0.874127 6.92819 0 0 0 
0.727522 1.24114 6.16465 0 0 0 
2.4362 1.88681 6.3641 0 0 0 
2.30232 1.86427 6.36562 0 0 0 
1.94647 1.79662 6.26651 0 0 0 
2.10656 1.79659 6.26994 0 0 0 
2.04831 1.77773 6.25823 0 0 0 
2.03431 1.57301 6.35223 0 0 0 
2.06181 1.56411 6.40486 0 0 0 
2.00786 1.34905 6.83717 0 0 0 
2.04906 1.37548 6.74934 0 0 0 
2.34624 1.78732 6.35953 0 0 0 
2.44178 1.86179 6.36481 0 0 0 
1.20794 1.34294 6.11775 0 0 0 
1.90288 1.62329 6.25346 0 0 0 
1.34018 1.48381 6.09446 0 0 0 
1.2516 1.44617 6.0626 0 0 0 
-0.026161 1.0842 5.67402 0 0 0 
0.484781 1.18729 5.80708 0 0 0 
2.23284 1.28309 6.74948 0 0 0 
1.1047 1.42285 6.09235 0 0 0 
2.16365 1.24018 6.8284 0 0 0 
1.52243 1.60932 6.12731 0 0 0 
0.773617 1.24431 6.06663 0 0 0 
1.02202 1.20875 7.02495 0 0 0 
1.19926 1.36559 6.10645 0 0 0 
-0.019275 0.979069 5.94609 0 0 0 
0.253203 1.16773 5.71151 0 0 0 
0.633934 1.16194 5.96393 0 0 0 
-0.042529 1.0238 5.73751 0 0 0 
-0.078286 0.91369 6.10077 0 0 0 
14.9989 3.29391 15.2216 0 0 0 
15.0033 3.57719 15.0452 0 0 0 
15.0677 3.68794 14.9974 0 0 0 
15.0671 4.07795 14.7153 0 0 0 
15.0242 3.94881 14.7684 0 0 0 
15.0297 3.82434 14.8861 0 0 0 
15.1518 4.10874 14.76 0 0 0 
15.1349 4.24042 14.7166 0 0 0 
15.1116 4.1433 14.7304 0 0 0 
7.19547 1.38102 9.22744 0 0 0 
7.46633 1.47407 9.17623 0 0 0 
7.33172 1.2637 9.55364 0 0 0 
8.82048 0.811536 10.4339 0 0 0 
8.82499 0.820539 10.3936 0 0 0 
8.87975 0.829789 10.3735 0 0 0 
7.16371 1.41704 9.10132 0 0 0 
7.00566 1.32813 9.24576 0 0 0 
8.4148 2.19684 7.57987 0 0 0 
8.36995 2.26225 7.52152 0 0 0 
8.42856 2.23103 7.49402 0 0 0 
9.00064 1.0265 10.0068 0 0 0 
8.98499 1.00882 10.0399 0 0 0 
8.93514 1.07438 9.92342 0 0 0 
8.55087 1.75633 9.01886 0 0 0 
8.57102 1.77218 9.03372 0 0 0 
8.57244 1.74397 9.0741 0 0 0 
6.52845 1.13481 9.1132 0 0 0 
6.50322 1.19843 9.07942 0 0 0 
6.54191 1.2047 9.11341 0 0 0 
10.0083 1.98554 9.41556 0 0 0 
9.91361 1.99478 9.41812 0 0 0 
9.97223 2.02438 9.3189 0 0 0 
6.38819 1.47576 8.27036 0 0 0 
6.43768 1.51936 8.22965 0 0 0 
6.51036 1.51406 8.3143 0 0 0 
9.491 1.2777 10.1962 0 0 0 
9.55717 1.30142 10.1753 0 0 0 
9.52755 1.25159 10.2126 0 0 0 
6.28566 1.05354 9.17956 0 0 0 
6.26868 1.08577 9.10764 0 0 0 
6.35835 1.0633 9.12834 0 0 0 
6.53489 1.57822 7.9785 0 0 0 
6.49255 1.54765 7.72918 0 0 0 
6.67474 1.62684 7.85795 0 0 0 
6.35067 0.754858 9.50109 0 0 0 
6.33667 0.78767 9.43379 0 0 0 
6.3458 0.777081 9.47433 0 0 0 
6.42955 1.54748 7.97659 0 0 0 
6.37897 1.51901 7.89664 0 0 0 
8.56511 1.87203 8.41539 0 0 0 
8.51614 1.95881 8.32904 0 0 0 
8.61941 1.92343 8.31235 0 0 0 
9.51842 1.40661 10.0792 0 0 0 
9.46907 1.32059 10.1359 0 0 0 
9.4005 1.39786 10.0575 0 0 0 
7.42811 0.757137 10.1802 0 0 0 
7.39203 0.756208 10.1794 0 0 0 
7.4219 0.794003 10.1722 0 0 0 
8.76094 1.61015 9.24856 0 0 0 
8.82466 1.56567 9.27374 0 0 0 
8.75869 1.5691 9.26227 0 0 0 
8.67053 1.99822 8.20315 0 0 0 
8.71878 1.96428 8.24812 0 0 0 
8.56904 1.98063 8.25659 0 0 0 
7.40051 1.92496 7.74431 0 0 0 
7.5211 1.94567 7.80678 0 0 0 
7.38375 1.91005 7.81256 0 0 0 
9.81179 2.02864 9.28355 0 0 0 
9.85124 2.01431 9.35316 0 0 0 
9.70848 1.98808 9.37152 0 0 0 
6.75647 0.844778 9.64831 0 0 0 
6.8352 0.863268 9.7674 0 0 0 
6.85222 0.809429 9.7773 0 0 0 
6.92214 1.54536 8.59755 0 0 0 
6.95341 1.57611 8.57104 0 0 0 
7.02196 1.57316 8.63521 0 0 0 
7.27492 0.799366 10.2271 0 0 0 
7.27517 0.750122 10.2425 0 0 0 
7.23531 0.778819 10.2543 0 0 0 
7.82619 1.6049 8.8141 0 0 0 
7.71797 1.63041 8.7728 0 0 0 
7.81317 1.64132 8.71585 0 0 0 
7.51841 1.94799 7.66245 0 0 0 
7.42031 1.93437 7.67317 0 0 0 
6.21936 0.86986 9.27003 0 0 0 
6.17612 0.817739 9.23834 0 0 0 
6.17107 0.897325 9.19277 0 0 0 
6.57346 1.20992 9.17975 0 0 0 
6.59769 1.15336 9.29177 0 0 0 
6.56825 1.12796 9.23067 0 0 0 
6.53407 1.07359 9.17669 0 0 0 
6.54997 1.09839 9.25339 0 0 0 
6.50287 1.05834 9.22456 0 0 0 
8.94081 1.31098 9.62712 0 0 0 
8.97574 1.3299 9.60942 0 0 0 
8.9827 1.30526 9.66203 0 0 0 
7.40237 0.878092 10.1702 0 0 0 
7.42325 0.837662 10.1822 0 0 0 
7.32513 0.793597 10.2246 0 0 0 
9.02767 1.16501 9.87009 0 0 0 
9.06492 1.09832 9.96698 0 0 0 
8.99596 1.13601 9.86439 0 0 0 
6.41681 1.34554 8.54863 0 0 0 
6.39161 1.33886 8.61167 0 0 0 
6.35165 1.35773 8.53714 0 0 0 
7.2157 1.97026 7.55482 0 0 0 
7.34433 1.98824 7.59602 0 0 0 
7.28596 1.95088 7.66367 0 0 0 
6.65154 1.03218 9.64779 0 0 0 
6.68318 1.04321 9.67388 0 0 0 
6.67202 1.00423 9.66713 0 0 0 
8.00335 0.886413 10.3297 0 0 0 
7.61984 0.767241 10.3493 0 0 0 
7.64665 0.845468 10.2973 0 0 0 
6.67838 1.08764 9.56167 0 0 0 
6.66794 1.06715 9.62291 0 0 0 
6.62445 1.05363 9.59897 0 0 0 
7.14208 0.776208 10.1942 0 0 0 
7.06177 0.83649 10.1632 0 0 0 
7.16516 0.797004 10.2426 0 0 0 
8.3375 1.95031 8.36566 0 0 0 
8.24909 2.00058 8.23194 0 0 0 
8.39315 2.00447 8.24147 0 0 0 
6.43752 0.777511 9.46485 0 0 0 
6.46366 0.798287 9.41831 0 0 0 
6.50506 0.775928 9.49774 0 0 0 
7.52214 1.57434 8.91789 0 0 0 
7.29498 1.49752 8.97634 0 0 0 
7.3466 1.5521 8.86958 0 0 0 
8.54689 2.15225 7.62226 0 0 0 
8.48826 2.16256 7.59613 0 0 0 
8.5555 2.14426 7.54592 0 0 0 
9.31005 1.23974 10.1064 0 0 0 
9.29779 1.35138 10.0356 0 0 0 
9.39801 1.30169 10.1213 0 0 0 
9.27775 1.00253 10.1998 0 0 0 
9.32773 0.982061 10.2049 0 0 0 
9.25794 0.932699 10.2497 0 0 0 
6.15703 1.3151 8.71992 0 0 0 
6.40069 1.24592 8.97306 0 0 0 
6.27923 1.17174 8.9703 0 0 0 
6.29062 1.24156 8.84743 0 0 0 
7.63241 1.50704 9.15487 0 0 0 
7.64678 1.45441 9.26896 0 0 0 
6.11681 0.918953 9.11278 0 0 0 
6.09016 0.97653 9.07368 0 0 0 
6.1088 1.02513 9.10572 0 0 0 
7.54408 1.40147 9.35685 0 0 0 
6.92339 1.59175 8.43184 0 0 0 
6.85209 1.54081 8.47915 0 0 0 
6.74121 1.54208 8.34339 0 0 0 
8.7768 1.98753 8.18098 0 0 0 
8.80549 1.95767 8.25255 0 0 0 
9.97429 1.42284 10.1155 0 0 0 
9.8985 1.45205 10.0973 0 0 0 
9.97598 1.50168 10.0935 0 0 0 
6.60306 1.09441 9.48084 0 0 0 
6.71129 1.12981 9.44131 0 0 0 
6.08948 0.776856 8.77521 0 0 0 
6.07841 0.959017 8.76637 0 0 0 
6.0741 0.904975 8.84683 0 0 0 
6.40228 1.53598 8.10348 0 0 0 
6.28216 1.47444 8.19642 0 0 0 
9.02484 1.63047 9.30534 0 0 0 
8.94637 1.65331 9.29265 0 0 0 
9.05514 1.69108 9.31938 0 0 0 
6.77879 1.07137 9.65361 0 0 0 
6.7266 1.06893 9.65522 0 0 0 
8.69278 0.809638 10.3728 0 0 0 
8.56279 0.782659 10.4184 0 0 0 
6.53093 1.55391 7.51878 0 0 0 
6.63809 1.00986 9.61843 0 0 0 
8.31629 1.82604 8.66453 0 0 0 
8.35101 1.80615 8.68785 0 0 0 
8.32166 1.77778 8.71502 0 0 0 
7.26816 1.98765 7.46972 0 0 0 
6.57188 1.57682 8.11793 0 0 0 
9.39747 1.19834 10.18 0 0 0 
9.33587 1.14067 10.1613 0 0 0 
8.51796 1.694 9.00879 0 0 0 
8.54711 1.64227 9.11701 0 0 0 
8.4584 1.62096 9.03807 0 0 0 
6.59666 1.23598 9.17754 0 0 0 
6.61837 1.27002 9.1105 0 0 0 
6.6617 1.25273 9.22083 0 0 0 
7.35346 0.77969 10.2148 0 0 0 
7.32978 0.69196 10.206 0 0 0 
8.50318 1.72756 8.89293 0 0 0 
8.34408 1.11938 10.0704 0 0 0 
8.65793 1.11565 9.98994 0 0 0 
8.4174 1.04759 10.1577 0 0 0 
7.12405 0.877773 10.1915 0 0 0 
7.22275 0.822966 10.236 0 0 0 
7.15686 0.833174 10.232 0 0 0 
8.65481 2.04931 8.04203 0 0 0 
7.31407 0.983043 9.99645 0 0 0 
7.30708 1.05431 9.90618 0 0 0 
7.49257 0.949863 10.1304 0 0 0 
7.33325 1.94628 7.68468 0 0 0 
6.5538 1.12649 9.17065 0 0 0 
6.13608 1.12254 8.94238 0 0 0 
6.17015 1.13747 8.92336 0 0 0 
6.23722 1.13448 9.00676 0 0 0 
10.1648 1.35456 10.078 0 0 0 
9.0554 1.31662 9.86867 0 0 0 
9.03772 1.25425 9.84128 0 0 0 
9.05124 1.3725 9.78757 0 0 0 
6.93815 1.00964 9.85739 0 0 0 
6.94032 0.9842 9.95924 0 0 0 
6.8784 1.006 9.86392 0 0 0 
6.01489 1.0033 8.59402 0 0 0 
5.96267 1.02191 8.52852 0 0 0 
5.9608 1.06209 8.57961 0 0 0 
6.60552 0.923874 9.46969 0 0 0 
6.53345 0.977938 9.38494 0 0 0 
6.6077 0.962634 9.49958 0 0 0 
6.03366 1.19683 8.79019 0 0 0 
7.12765 0.89749 10.1602 0 0 0 
7.25064 0.894634 10.1361 0 0 0 
6.49608 1.3655 8.47907 0 0 0 
6.55365 1.40006 8.45004 0 0 0 
6.64237 1.42626 8.46553 0 0 0 
6.42479 1.34573 8.48462 0 0 0 
8.46231 0.756409 10.447 0 0 0 
8.47927 0.781402 10.4046 0 0 0 
9.6689 0.846149 10.0926 0 0 0 
9.51236 0.781385 10.147 0 0 0 
9.51586 1.00433 10.1681 0 0 0 
9.13159 1.19992 10.0179 0 0 0 
9.09524 1.22053 9.96699 0 0 0 
9.18121 1.22258 10.0565 0 0 0 
7.2105 1.04156 9.86732 0 0 0 
7.18132 1.09394 9.80341 0 0 0 
6.41334 1.35717 8.44566 0 0 0 
8.23704 1.66635 8.76927 0 0 0 
8.24566 1.68919 8.74384 0 0 0 
8.29332 1.72432 8.73951 0 0 0 
8.41216 0.783314 10.3812 0 0 0 
8.3872 0.761175 10.4059 0 0 0 
7.23459 0.938364 10.0382 0 0 0 
8.44668 1.67379 8.91567 0 0 0 
8.38675 1.64802 8.92202 0 0 0 
8.42155 1.66876 8.8329 0 0 0 
6.09272 1.09724 8.91892 0 0 0 
6.08328 1.09786 8.86847 0 0 0 
6.09742 1.12363 8.84566 0 0 0 
6.47916 0.975101 9.28572 0 0 0 
6.47929 1.05594 9.36697 0 0 0 
6.49114 1.04543 9.39952 0 0 0 
8.77068 1.04039 10.0949 0 0 0 
8.83585 0.986265 10.2074 0 0 0 
8.62503 1.0174 10.1743 0 0 0 
9.25723 1.75856 9.4719 0 0 0 
9.28476 1.82332 9.37496 0 0 0 
9.42911 1.85369 9.45998 0 0 0 
8.39581 1.75642 8.71736 0 0 0 
8.41405 1.6874 8.77308 0 0 0 
8.33915 1.68461 8.77246 0 0 0 
7.54861 0.872106 10.2462 0 0 0 
7.46704 0.851911 10.2005 0 0 0 
7.44858 0.881814 10.1749 0 0 0 
7.35316 0.924211 10.0987 0 0 0 
8.94935 0.801274 10.4415 0 0 0 
8.98537 0.786533 10.452 0 0 0 
8.9573 0.73545 10.5431 0 0 0 
7.5309 0.729227 10.3297 0 0 0 
7.54307 0.80396 10.2953 0 0 0 
7.57667 0.79591 10.3182 0 0 0 
8.40044 1.84747 8.59374 0 0 0 
8.34233 1.86428 8.59321 0 0 0 
8.38271 1.9107 8.44158 0 0 0 
6.07785 0.948016 8.59517 0 0 0 
6.07395 0.892058 8.48253 0 0 0 
8.81887 0.861098 10.3423 0 0 0 
8.93311 0.861358 10.335 0 0 0 
8.51628 1.86468 8.47501 0 0 0 
8.46056 1.90902 8.41143 0 0 0 
6.78306 1.71896 7.42861 0 0 0 
6.9173 1.83217 7.37521 0 0 0 
8.8417 1.97593 8.21228 0 0 0 
7.21662 1.12194 9.77323 0 0 0 
9.00225 1.29053 9.72077 0 0 0 
8.23327 1.04922 10.1892 0 0 0 
8.37631 0.98773 10.245 0 0 0 
9.06012 0.993544 10.0603 0 0 0 
9.10781 0.999902 10.0727 0 0 0 
9.06012 0.979588 10.0996 0 0 0 
7.26076 1.68482 8.46113 0 0 0 
7.23268 1.66954 8.56366 0 0 0 
7.08596 1.63738 8.48498 0 0 0 
7.49475 1.72415 8.65248 0 0 0 
7.52747 1.70709 8.70864 0 0 0 
7.45801 1.7105 8.68166 0 0 0 
5.96692 1.07827 8.63699 0 0 0 
6.02698 1.03076 8.68134 0 0 0 
8.68873 1.57322 9.23807 0 0 0 
8.67968 1.6527 9.20832 0 0 0 
7.13201 1.98452 7.37373 0 0 0 
7.07231 1.95951 7.32965 0 0 0 
7.13606 1.97696 7.31496 0 0 0 
8.1763 1.6134 8.85615 0 0 0 
8.15654 1.62546 8.80991 0 0 0 
8.30635 1.65369 8.80672 0 0 0 
6.56759 1.10955 9.36774 0 0 0 
6.51489 1.07136 9.41722 0 0 0 
6.50914 1.08432 9.35467 0 0 0 
6.25264 1.38988 8.58745 0 0 0 
7.96344 1.6244 8.77068 0 0 0 
7.99337 1.64431 8.73857 0 0 0 
6.09013 1.04428 8.93043 0 0 0 
6.82711 1.6124 8.20166 0 0 0 
6.3743 1.38212 8.41648 0 0 0 
6.34942 1.37098 8.4791 0 0 0 
6.29343 1.38362 8.54297 0 0 0 
10.0236 1.4682 10.1191 0 0 0 
10.002 1.38314 10.1233 0 0 0 
9.56838 1.26725 10.1918 0 0 0 
9.63806 1.26783 10.1714 0 0 0 
8.96332 1.27418 9.68482 0 0 0 
9.07273 1.14046 9.95102 0 0 0 
9.12248 1.09397 10.0282 0 0 0 
7.84015 0.946669 10.2536 0 0 0 
7.67671 1.01085 10.1289 0 0 0 
6.87286 1.36787 8.98112 0 0 0 
6.70417 1.29473 9.12645 0 0 0 
6.69908 1.31044 9.0157 0 0 0 
6.2727 0.819047 9.36199 0 0 0 
6.35491 0.795505 9.34769 0 0 0 
6.34554 0.79506 9.40132 0 0 0 
7.06965 1.91124 7.59342 0 0 0 
7.12335 1.93772 7.61239 0 0 0 
7.11914 1.87239 7.73063 0 0 0 
6.49886 1.35585 8.5404 0 0 0 
8.87147 1.27288 9.69106 0 0 0 
8.8649 1.16941 9.80372 0 0 0 
8.72126 1.25472 9.75715 0 0 0 
8.61069 0.960932 10.2751 0 0 0 
8.90268 0.955535 10.2625 0 0 0 
8.7184 0.923265 10.3168 0 0 0 
9.90169 1.30681 10.1126 0 0 0 
9.8915 1.3895 10.1146 0 0 0 
8.94217 0.84435 10.3462 0 0 0 
9.26458 1.67888 9.79702 0 0 0 
9.27456 1.65253 9.83081 0 0 0 
9.21545 1.64555 9.80302 0 0 0 
6.8892 0.922539 9.95675 0 0 0 
6.94561 0.86646 9.98671 0 0 0 
6.89689 0.851863 9.87932 0 0 0 
6.38623 0.815649 9.28252 0 0 0 
6.52385 0.822399 9.42619 0 0 0 
9.03469 0.816425 10.4007 0 0 0 
6.27612 1.48946 8.04655 0 0 0 
6.18624 1.46203 8.07944 0 0 0 
7.63649 2.02445 7.4829 0 0 0 
7.69832 2.02189 7.50047 0 0 0 
7.67403 2.01298 7.55657 0 0 0 
7.3401 1.69711 8.61952 0 0 0 
7.473 1.68889 8.73054 0 0 0 
7.2603 1.66469 8.63715 0 0 0 
8.95935 1.35755 9.54892 0 0 0 
8.90058 1.33088 9.61217 0 0 0 
7.44596 1.90313 7.92126 0 0 0 
7.54738 1.93503 7.95276 0 0 0 
7.34834 1.83867 8.00977 0 0 0 
7.09022 1.11234 9.73369 0 0 0 
7.02393 1.08632 9.70124 0 0 0 
6.96923 1.15164 9.59058 0 0 0 
8.56097 0.772877 10.4603 0 0 0 
8.75145 0.784154 10.483 0 0 0 
7.79661 2.04115 7.7032 0 0 0 
7.90553 2.09917 7.60451 0 0 0 
7.98335 2.14091 7.6507 0 0 0 
9.07121 1.46734 9.68048 0 0 0 
9.08821 1.46776 9.74205 0 0 0 
9.07038 1.42456 9.7797 0 0 0 
9.81024 1.94292 9.51917 0 0 0 
9.64208 1.91856 9.49096 0 0 0 
9.17341 0.975842 10.1449 0 0 0 
9.20891 1.01325 10.1535 0 0 0 
9.24259 1.00336 10.1882 0 0 0 
7.74506 1.77232 8.48846 0 0 0 
7.59157 1.78361 8.35342 0 0 0 
7.61425 1.84964 8.17494 0 0 0 
9.093 1.64903 9.36548 0 0 0 
9.10555 1.62874 9.42173 0 0 0 
9.06929 1.5816 9.37424 0 0 0 
7.01258 0.949748 10.0322 0 0 0 
7.01325 0.903371 10.0997 0 0 0 
6.97603 0.927544 10.048 0 0 0 
7.85467 1.69726 8.64421 0 0 0 
10.0033 2.03437 9.24175 0 0 0 
9.90779 2.03903 9.26284 0 0 0 
6.83187 0.903389 9.81836 0 0 0 
6.74186 0.92079 9.69632 0 0 0 
6.81483 0.941334 9.84955 0 0 0 
8.60312 1.63729 9.16212 0 0 0 
8.60603 1.68359 9.14572 0 0 0 
8.00901 1.32623 9.63422 0 0 0 
7.92246 1.26872 9.77163 0 0 0 
7.75091 1.36076 9.50315 0 0 0 
6.54199 1.09942 9.3102 0 0 0 
10.1247 1.73784 9.94156 0 0 0 
9.71316 1.11868 10.1253 0 0 0 
9.71391 1.26129 10.1593 0 0 0 
8.56973 1.78395 8.98193 0 0 0 
6.26254 1.31696 8.65713 0 0 0 
6.28497 1.34766 8.60241 0 0 0 
6.33379 1.34008 8.60265 0 0 0 
7.54108 1.6432 8.80854 0 0 0 
7.59128 1.66921 8.76596 0 0 0 
7.66872 1.60363 8.85355 0 0 0 
9.38007 1.54942 9.95485 0 0 0 
9.18368 1.57253 9.80406 0 0 0 
9.14609 1.57038 9.73762 0 0 0 
9.18327 1.63208 9.77382 0 0 0 
9.0498 1.06202 9.99066 0 0 0 
9.14214 1.02979 10.0707 0 0 0 
8.2477 0.767992 10.3999 0 0 0 
8.11826 0.824761 10.3791 0 0 0 
8.30737 0.845976 10.366 0 0 0 
6.00986 1.16224 8.76256 0 0 0 
7.11193 1.68384 8.35509 0 0 0 
7.20898 1.71622 8.35533 0 0 0 
6.07683 1.04131 8.83379 0 0 0 
6.05002 1.13775 8.80059 0 0 0 
6.06528 1.11118 8.83213 0 0 0 
9.80652 1.39946 10.1422 0 0 0 
9.7963 1.44541 10.1139 0 0 0 
6.07555 1.19673 8.79042 0 0 0 
7.45336 1.80885 8.1911 0 0 0 
7.37402 1.81777 8.10923 0 0 0 
7.71456 1.96286 7.95175 0 0 0 
7.99736 2.11697 7.76211 0 0 0 
7.90463 1.9764 8.10909 0 0 0 
6.89076 1.2073 9.45122 0 0 0 
6.86256 1.14828 9.50166 0 0 0 
6.84486 1.23937 9.37641 0 0 0 
9.46351 1.71308 9.83792 0 0 0 
9.43249 1.72506 9.79292 0 0 0 
9.58515 1.78401 9.73866 0 0 0 
9.86564 1.5176 10.0602 0 0 0 
9.73425 1.55017 10.0251 0 0 0 
9.97714 1.58184 10.042 0 0 0 
8.4829 1.55631 9.18009 0 0 0 
8.57667 1.58604 9.1824 0 0 0 
8.62023 1.54122 9.25203 0 0 0 
7.25164 0.84423 10.1973 0 0 0 
7.44841 1.61445 8.82423 0 0 0 
6.10401 1.25518 8.7712 0 0 0 
6.16577 1.24256 8.73748 0 0 0 
9.32413 1.68992 9.79758 0 0 0 
9.29922 1.70138 9.7131 0 0 0 
9.35561 1.71779 9.6906 0 0 0 
9.93201 1.13319 10.0773 0 0 0 
9.8059 1.34267 10.1444 0 0 0 
8.49068 1.31096 9.70947 0 0 0 
8.08323 1.14211 10.0696 0 0 0 
8.08416 1.21896 9.91143 0 0 0 
6.949 1.85756 7.45246 0 0 0 
7.00757 1.88571 7.53704 0 0 0 
6.89695 1.79316 7.54043 0 0 0 
9.13735 1.74747 9.32516 0 0 0 
9.13434 1.68914 9.38504 0 0 0 
9.52805 1.11799 10.1887 0 0 0 
9.48161 1.16727 10.2071 0 0 0 
9.52517 1.19162 10.2119 0 0 0 
6.44144 1.0061 9.1818 0 0 0 
6.43433 0.991125 9.22453 0 0 0 
6.36378 1.018 9.22335 0 0 0 
7.95758 1.14285 10.0608 0 0 0 
6.53823 1.06594 9.47758 0 0 0 
7.05845 0.81591 10.1294 0 0 0 
7.00261 0.838243 10.0554 0 0 0 
7.00221 0.864683 10.091 0 0 0 
8.50694 0.909834 10.3361 0 0 0 
10.1215 1.97952 9.34764 0 0 0 
9.44013 1.68363 9.87691 0 0 0 
9.51363 1.67084 9.88288 0 0 0 
9.57034 1.6014 9.95273 0 0 0 
6.50658 0.954325 9.32813 0 0 0 
6.27202 1.11931 9.05239 0 0 0 
6.18385 1.09038 9.07663 0 0 0 
6.16274 1.10357 9.0242 0 0 0 
7.77759 1.23425 9.82055 0 0 0 
9.02633 1.45137 9.43083 0 0 0 
8.99612 1.46899 9.34365 0 0 0 
9.03171 1.51252 9.32035 0 0 0 
6.65014 0.894536 9.52653 0 0 0 
6.94576 1.05965 9.69467 0 0 0 
6.82326 1.0276 9.76076 0 0 0 
8.99137 0.911433 10.29 0 0 0 
9.08249 0.914936 10.2522 0 0 0 
9.04451 0.868553 10.3265 0 0 0 
8.98355 1.24911 9.73959 0 0 0 
8.97452 1.2017 9.78437 0 0 0 
8.93096 1.25341 9.70275 0 0 0 
6.67675 0.914082 9.56215 0 0 0 
7.43469 1.13128 9.84826 0 0 0 
7.71501 1.13136 9.97879 0 0 0 
6.81678 0.973791 9.86478 0 0 0 
6.84568 0.99361 9.87497 0 0 0 
6.87017 0.954251 9.94183 0 0 0 
8.53175 1.84698 8.62731 0 0 0 
8.48038 1.82153 8.65595 0 0 0 
8.46266 1.85339 8.52084 0 0 0 
8.92394 1.1531 9.81262 0 0 0 
8.91598 1.20015 9.76679 0 0 0 
6.34351 1.00184 9.26673 0 0 0 
6.36411 0.967289 9.2709 0 0 0 
9.70389 1.65847 9.93958 0 0 0 
6.35271 1.17346 9.02664 0 0 0 
6.40089 1.14993 9.06259 0 0 0 
8.39153 2.17677 7.69034 0 0 0 
8.51827 2.14493 7.74294 0 0 0 
8.24973 2.17016 7.77568 0 0 0 
9.00889 1.23398 9.79184 0 0 0 
7.00373 1.78976 7.76765 0 0 0 
6.91017 1.68451 8.00261 0 0 0 
6.86173 1.73898 7.68117 0 0 0 
6.04378 1.05148 8.73478 0 0 0 
9.89709 0.885682 10.0186 0 0 0 
9.83917 0.923212 10.0576 0 0 0 
10.0532 1.04985 10.0231 0 0 0 
6.56259 1.01697 9.49403 0 0 0 
6.59205 1.03722 9.56541 0 0 0 
9.29632 0.837927 10.2849 0 0 0 
9.25718 0.874887 10.2882 0 0 0 
9.3296 0.912581 10.2337 0 0 0 
6.48395 0.740153 9.58294 0 0 0 
7.91288 1.08666 10.1343 0 0 0 
8.01982 1.0849 10.1525 0 0 0 
7.92782 1.01891 10.2097 0 0 0 
6.90141 1.10813 9.59129 0 0 0 
6.81732 1.08988 9.60131 0 0 0 
6.24195 1.03904 9.21217 0 0 0 
6.18853 1.03788 9.18373 0 0 0 
6.20028 1.05884 9.15311 0 0 0 
6.48628 1.02609 9.14906 0 0 0 
9.03501 1.41902 9.48372 0 0 0 
9.00898 1.40853 9.46045 0 0 0 
7.60412 1.28344 9.65096 0 0 0 
9.58974 1.35582 10.1258 0 0 0 
6.70549 0.983248 9.71499 0 0 0 
6.73537 0.991368 9.77142 0 0 0 
7.52531 1.5265 9.07495 0 0 0 
7.60172 1.56928 8.95553 0 0 0 
7.08762 1.96219 7.48924 0 0 0 
7.13838 1.98043 7.4744 0 0 0 
7.18446 1.94863 7.62673 0 0 0 
7.914 1.42285 9.34249 0 0 0 
6.46048 1.00443 9.22835 0 0 0 
6.48493 1.06861 9.31756 0 0 0 
9.45014 1.11727 10.187 0 0 0 
9.09183 1.57254 9.49395 0 0 0 
7.839 1.86797 8.32898 0 0 0 
7.93577 1.8384 8.48058 0 0 0 
7.82479 1.76499 8.54583 0 0 0 
6.34033 0.916262 9.26528 0 0 0 
6.4256 0.917485 9.24615 0 0 0 
6.3649 0.872747 9.25791 0 0 0 
9.33408 1.76791 9.56458 0 0 0 
9.22412 1.71339 9.59868 0 0 0 
7.45153 0.915502 10.1503 0 0 0 
7.21771 1.54371 8.79982 0 0 0 
7.22049 1.60022 8.72013 0 0 0 
6.35171 1.09677 9.09056 0 0 0 
8.18048 2.24787 7.60626 0 0 0 
8.13722 2.19263 7.71091 0 0 0 
8.12249 2.24869 7.58705 0 0 0 
8.54065 0.894007 10.3457 0 0 0 
8.57678 0.823484 10.3604 0 0 0 
8.51938 0.83602 10.3629 0 0 0 
6.38921 0.768531 9.49461 0 0 0 
6.38712 0.743121 9.52541 0 0 0 
8.72012 0.836294 10.3534 0 0 0 
8.69957 0.880331 10.3384 0 0 0 
6.22016 1.19988 8.8302 0 0 0 
6.75742 1.64212 7.96559 0 0 0 
9.17944 1.74082 9.3775 0 0 0 
8.02876 1.90857 8.36276 0 0 0 
8.03382 2.01167 8.10304 0 0 0 
6.12751 1.28164 8.74636 0 0 0 
8.74868 2.02214 8.07576 0 0 0 
8.79876 1.99135 8.1184 0 0 0 
6.07051 0.954616 8.92935 0 0 0 
6.0676 0.887797 8.96397 0 0 0 
8.28748 1.88126 8.52711 0 0 0 
8.26691 1.84803 8.6019 0 0 0 
8.19153 1.81359 8.61316 0 0 0 
7.00042 1.91584 7.37331 0 0 0 
7.04338 1.94971 7.40261 0 0 0 
7.02481 1.93003 7.45377 0 0 0 
7.16147 0.728466 10.1142 0 0 0 
7.10785 0.752618 10.0908 0 0 0 
8.0594 1.67452 8.71151 0 0 0 
9.17922 0.728201 10.416 0 0 0 
9.10504 0.801576 10.4011 0 0 0 
9.2092 0.843836 10.3389 0 0 0 
6.73001 1.01481 9.7474 0 0 0 
8.91819 1.0035 10.1142 0 0 0 
8.99664 0.960561 10.2122 0 0 0 
8.91139 0.975479 10.2203 0 0 0 
7.57989 1.96906 7.68571 0 0 0 
7.6314 1.96376 7.87129 0 0 0 
6.92083 0.760357 9.85442 0 0 0 
6.89687 0.734505 9.83589 0 0 0 
6.82894 0.755988 9.75656 0 0 0 
9.68137 1.42495 10.1174 0 0 0 
9.72941 1.39909 10.1673 0 0 0 
9.67426 1.39479 10.1534 0 0 0 
9.0671 1.63675 9.34251 0 0 0 
9.02617 1.54072 9.29074 0 0 0 
8.38324 1.66529 8.80263 0 0 0 
8.22193 1.60221 8.9548 0 0 0 
6.77033 0.773547 9.67487 0 0 0 
6.71005 0.733906 9.67528 0 0 0 
6.70906 0.797518 9.61844 0 0 0 
9.25696 1.71033 9.66373 0 0 0 
8.45133 2.19462 7.52799 0 0 0 
9.35212 1.74639 9.63857 0 0 0 
7.42121 1.99298 7.50882 0 0 0 
7.16589 1.98616 7.36816 0 0 0 
7.19846 1.9913 7.44191 0 0 0 
9.19125 1.48122 9.90987 0 0 0 
9.20965 1.44187 9.95024 0 0 0 
9.16985 1.40747 9.93474 0 0 0 
7.11412 1.15768 9.67651 0 0 0 
6.98022 1.19165 9.54165 0 0 0 
6.07783 0.791833 8.898 0 0 0 
6.49619 1.54718 8.20208 0 0 0 
8.18888 0.886127 10.3393 0 0 0 
8.23895 0.957558 10.2813 0 0 0 
9.76402 0.8078 10.0468 0 0 0 
9.14193 1.36175 9.92105 0 0 0 
9.15231 1.42422 9.90492 0 0 0 
6.90245 0.970184 9.958 0 0 0 
6.95943 0.960136 10.0083 0 0 0 
6.35781 0.83221 9.27279 0 0 0 
7.19683 0.812305 10.249 0 0 0 
5.86689 0.892737 8.20967 0 0 0 
6.07135 0.967604 8.65113 0 0 0 
6.46042 1.01697 9.13499 0 0 0 
6.47378 1.04305 9.10593 0 0 0 
8.14301 1.0964 10.1387 0 0 0 
8.28933 1.17416 9.98986 0 0 0 
6.33833 1.30461 8.71787 0 0 0 
6.28585 0.895915 9.27663 0 0 0 
6.32325 0.970298 9.27554 0 0 0 
6.1359 1.17514 8.77935 0 0 0 
7.31088 1.47537 9.0769 0 0 0 
8.79597 2.02529 8.03028 0 0 0 
8.1221 0.758321 10.4141 0 0 0 
8.5563 1.71683 9.05844 0 0 0 
8.45169 2.04488 8.11482 0 0 0 
6.27457 1.45935 7.8397 0 0 0 
8.39585 0.816149 10.3689 0 0 0 
8.45704 0.801558 10.3801 0 0 0 
7.73087 1.72518 8.6098 0 0 0 
7.58549 1.74914 8.48012 0 0 0 
7.13022 1.72615 8.19023 0 0 0 
6.28093 0.766772 9.425 0 0 0 
6.64938 1.5057 8.3603 0 0 0 
6.58688 1.51604 8.33157 0 0 0 
6.66412 1.56954 8.22961 0 0 0 
7.76596 2.03031 7.4865 0 0 0 
7.75952 2.0339 7.58013 0 0 0 
6.62654 1.33495 8.88364 0 0 0 
6.45586 1.28968 8.88993 0 0 0 
7.73493 1.64702 8.7316 0 0 0 
7.684 1.68047 8.71684 0 0 0 
7.75741 1.70247 8.65728 0 0 0 
6.1594 1.01482 9.16658 0 0 0 
6.20338 1.01416 9.21328 0 0 0 
7.39452 1.98054 7.59999 0 0 0 
7.43324 1.9479 7.63112 0 0 0 
10.0983 1.64409 10.0188 0 0 0 
6.08895 0.782703 8.36373 0 0 0 
6.09881 0.73403 8.37734 0 0 0 
6.04329 0.789594 8.3239 0 0 0 
6.48406 1.07589 9.08718 0 0 0 
6.51199 1.06995 9.10487 0 0 0 
9.15612 1.66867 9.49648 0 0 0 
6.53136 1.26774 9.03119 0 0 0 
6.64326 1.6307 7.52919 0 0 0 
9.0557 1.4523 9.50766 0 0 0 
9.01923 1.37547 9.60337 0 0 0 
7.91198 1.7459 8.60513 0 0 0 
7.99894 1.80644 8.56479 0 0 0 
8.0737 1.76336 8.6317 0 0 0 
9.46402 1.76133 9.69882 0 0 0 
9.26946 1.06509 10.1617 0 0 0 
8.76022 1.52538 9.30299 0 0 0 
9.26303 1.49972 9.9449 0 0 0 
7.40324 1.71882 8.55137 0 0 0 
6.25364 1.46752 8.25476 0 0 0 
9.57492 1.1807 10.1829 0 0 0 
10.1305 1.93258 9.47113 0 0 0 
9.75225 1.47894 10.0777 0 0 0 
8.73149 2.14626 7.66233 0 0 0 
8.69333 2.15766 7.58974 0 0 0 
8.76533 2.16558 7.58513 0 0 0 
8.48348 1.70361 8.77764 0 0 0 
7.10258 1.06549 9.7831 0 0 0 
9.363 0.651322 10.2672 0 0 0 
9.29261 0.775331 10.3066 0 0 0 
9.43405 0.824842 10.1959 0 0 0 
9.09431 1.52906 9.66052 0 0 0 
9.13815 1.6005 9.6572 0 0 0 
8.10397 1.41727 9.36786 0 0 0 
7.99677 1.48612 9.17952 0 0 0 
10.0758 1.54475 10.0881 0 0 0 
10.0103 1.50522 10.1093 0 0 0 
8.96194 1.47241 9.33364 0 0 0 
8.98687 1.43469 9.41266 0 0 0 
8.94623 1.3916 9.47898 0 0 0 
6.24966 0.79943 9.38081 0 0 0 
6.24432 0.721286 9.42616 0 0 0 
6.21718 0.812484 9.32801 0 0 0 
7.13906 1.00882 9.85808 0 0 0 
6.51308 1.43142 8.40144 0 0 0 
8.72671 1.67338 9.2435 0 0 0 
8.7973 1.7025 9.28185 0 0 0 
7.13092 1.76729 8.00758 0 0 0 
8.59535 2.12362 7.49445 0 0 0 
8.51275 2.1404 7.48251 0 0 0 
6.29269 1.02826 9.23931 0 0 0 
8.93886 1.52792 9.28946 0 0 0 
6.56423 1.53996 8.28874 0 0 0 
8.61212 1.25924 9.77772 0 0 0 
6.99503 0.811587 9.97744 0 0 0 
7.04329 0.770535 10.0109 0 0 0 
6.88431 0.823435 9.82722 0 0 0 
7.1216 1.56706 8.69368 0 0 0 
7.04293 1.50365 8.74612 0 0 0 
6.74775 1.6878 7.60984 0 0 0 
8.29406 2.06406 8.06859 0 0 0 
6.93333 1.26866 9.35912 0 0 0 
6.78064 1.26602 9.28312 0 0 0 
8.65254 1.87273 8.34849 0 0 0 
9.59555 1.73611 9.8214 0 0 0 
6.15834 0.734654 8.45838 0 0 0 
6.14923 0.763288 8.43437 0 0 0 
6.15196 0.773819 8.49414 0 0 0 
9.20395 1.67088 9.76591 0 0 0 
9.06506 1.50168 9.47501 0 0 0 
8.26346 0.742479 10.426 0 0 0 
8.37382 1.59415 9.04047 0 0 0 
8.86475 1.48755 9.33359 0 0 0 
7.08182 1.45272 8.90421 0 0 0 
6.52811 1.34708 8.69853 0 0 0 
7.89069 1.11704 10.089 0 0 0 
6.6554 0.853336 9.54049 0 0 0 
6.6001 0.88305 9.46574 0 0 0 
6.07092 0.956736 9.00446 0 0 0 
6.42643 1.37995 8.41104 0 0 0 
9.01018 1.50731 9.29431 0 0 0 
6.82852 1.00506 9.82726 0 0 0 
8.18128 1.52022 9.13319 0 0 0 
8.04829 1.54927 9.05834 0 0 0 
10.1163 1.86997 9.64427 0 0 0 
9.96585 1.88128 9.65258 0 0 0 
6.2879 0.82764 9.33377 0 0 0 
6.25242 0.848057 9.31606 0 0 0 
9.18713 1.17974 10.069 0 0 0 
7.37741 0.889076 10.1591 0 0 0 
7.19734 0.763063 10.2423 0 0 0 
9.74368 1.35612 10.1781 0 0 0 
8.53221 1.79813 8.72752 0 0 0 
8.43817 1.78428 8.69058 0 0 0 
6.62294 1.39247 8.55253 0 0 0 
9.72978 1.72929 9.87049 0 0 0 
9.91137 1.74738 9.87543 0 0 0 
9.83224 1.68199 9.93553 0 0 0 
5.94258 0.936983 8.32607 0 0 0 
6.46406 1.11248 9.08005 0 0 0 
7.81474 1.53754 9.0548 0 0 0 
8.54183 1.75925 8.82287 0 0 0 
8.82679 1.08798 9.96561 0 0 0 
8.88776 1.10032 9.88823 0 0 0 
8.90281 1.05638 9.97345 0 0 0 
7.50843 0.757892 10.2864 0 0 0 
7.41136 0.68337 10.2316 0 0 0 
6.5524 0.897344 9.39475 0 0 0 
6.53069 0.849436 9.39756 0 0 0 
6.48609 0.867464 9.30402 0 0 0 
6.80007 0.725176 9.74153 0 0 0 
7.11399 1.95634 7.28077 0 0 0 
8.3949 0.882523 10.3527 0 0 0 
9.24955 1.14863 10.1123 0 0 0 
8.34098 0.779282 10.3817 0 0 0 
9.11051 0.93659 10.1957 0 0 0 
7.06996 1.02805 9.80602 0 0 0 
6.785 0.797206 9.68005 0 0 0 
6.57554 0.834805 9.46874 0 0 0 
6.61034 0.815629 9.52052 0 0 0 
6.55696 0.795516 9.49719 0 0 0 
6.07649 0.913957 9.03082 0 0 0 
5.94508 0.876389 8.27874 0 0 0 
8.00408 0.974985 10.2643 0 0 0 
6.95809 1.11127 9.61859 0 0 0 
9.71374 1.84664 9.67965 0 0 0 
7.632 1.20726 9.81377 0 0 0 
7.4604 1.99882 7.54507 0 0 0 
7.50579 1.94906 7.61376 0 0 0 
8.14587 2.10092 7.91988 0 0 0 
8.39652 1.80883 8.65675 0 0 0 
8.46226 1.8373 8.5852 0 0 0 
6.53675 1.03811 9.47504 0 0 0 
6.51694 1.0226 9.41706 0 0 0 
8.67431 1.90121 8.30652 0 0 0 
8.7891 1.91895 8.29555 0 0 0 
8.72382 1.89 8.31544 0 0 0 
6.53369 1.07482 9.1353 0 0 0 
9.42192 1.25949 10.1688 0 0 0 
8.0955 1.86559 8.49914 0 0 0 
7.2829 1.71508 8.38953 0 0 0 
7.42056 1.74356 8.38306 0 0 0 
8.45102 0.863089 10.3617 0 0 0 
6.89638 1.46261 8.73886 0 0 0 
7.74418 1.8929 8.16968 0 0 0 
7.62037 2.00239 7.57628 0 0 0 
7.58575 2.02155 7.51071 0 0 0 
9.17708 1.67426 9.62451 0 0 0 
9.08145 1.5277 9.57564 0 0 0 
8.6355 2.15565 7.64929 0 0 0 
5.95981 0.842825 8.27611 0 0 0 
5.90937 0.846137 8.23298 0 0 0 
9.17052 0.845587 10.3418 0 0 0 
6.72932 1.04097 9.71133 0 0 0 
7.05648 0.860081 10.1696 0 0 0 
5.88852 0.758649 8.25765 0 0 0 
5.8395 0.8095 8.20677 0 0 0 
7.79178 1.5776 8.9301 0 0 0 
8.01393 1.58567 8.97027 0 0 0 
6.03214 1.11065 8.76235 0 0 0 
5.99343 1.10755 8.70811 0 0 0 
9.18794 0.918298 10.2414 0 0 0 
9.16044 0.88525 10.2842 0 0 0 
6.45206 0.962395 9.23269 0 0 0 
6.44066 0.853336 9.27272 0 0 0 
8.79974 1.31695 9.65754 0 0 0 
8.90341 1.67185 9.28834 0 0 0 
8.85374 1.63119 9.27861 0 0 0 
6.72879 0.89172 9.62756 0 0 0 
9.59546 1.21621 10.173 0 0 0 
9.33736 1.89362 9.31664 0 0 0 
8.3417 1.41597 9.43691 0 0 0 
8.57723 1.42277 9.47037 0 0 0 
8.3071 1.30621 9.72171 0 0 0 
6.1825 1.19108 8.77034 0 0 0 
8.00021 1.60453 8.84284 0 0 0 
6.08338 1.00411 8.87357 0 0 0 
9.2472 1.58958 9.85241 0 0 0 
9.36977 1.67443 9.85923 0 0 0 
6.40285 1.41688 8.36748 0 0 0 
6.25903 1.28239 8.70756 0 0 0 
6.23792 1.24695 8.75417 0 0 0 
6.20256 1.25516 8.7276 0 0 0 
8.75033 1.46772 9.39019 0 0 0 
8.83894 1.3658 9.56909 0 0 0 
8.61266 1.81166 8.91345 0 0 0 
8.60637 1.80975 8.79841 0 0 0 
7.93575 1.8074 8.53934 0 0 0 
6.12878 1.05317 9.11804 0 0 0 
8.98977 1.53297 9.28004 0 0 0 
8.91909 1.58018 9.27841 0 0 0 
6.60043 0.734117 9.62246 0 0 0 
6.61178 0.757074 9.57367 0 0 0 
8.66842 2.14191 7.52159 0 0 0 
8.47034 1.69115 8.80704 0 0 0 
6.71657 1.49147 8.42492 0 0 0 
8.06656 2.20523 7.62825 0 0 0 
8.09518 2.23998 7.55979 0 0 0 
7.19414 1.90801 7.73436 0 0 0 
7.23042 1.85008 7.86795 0 0 0 
6.60365 1.07217 9.54636 0 0 0 
6.57454 1.24385 9.11275 0 0 0 
8.7149 1.71977 9.23985 0 0 0 
6.92574 0.921303 10.0027 0 0 0 
9.69668 1.35601 10.1785 0 0 0 
9.6473 1.35188 10.1617 0 0 0 
6.20161 1.2206 8.75442 0 0 0 
6.01815 0.82534 8.30829 0 0 0 
5.99273 0.807467 8.29154 0 0 0 
9.0144 1.33794 9.69006 0 0 0 
8.53279 1.76592 8.78232 0 0 0 
8.7569 2.12552 7.79584 0 0 0 
8.79016 2.13837 7.68214 0 0 0 
10.0401 1.35101 10.1153 0 0 0 
10.1196 1.22227 10.0547 0 0 0 
9.97782 1.29943 10.1076 0 0 0 
8.22221 1.7461 8.69702 0 0 0 
9.22593 0.942042 10.2359 0 0 0 
6.95732 0.893813 10.0375 0 0 0 
6.63613 1.15331 9.344 0 0 0 
6.6525 1.13505 9.39223 0 0 0 
9.12891 1.44307 9.83838 0 0 0 
9.07033 1.31452 9.90178 0 0 0 
9.14984 1.2994 9.95388 0 0 0 
9.00431 1.57566 9.28307 0 0 0 
6.11502 1.06064 9.06366 0 0 0 
7.10156 0.715444 10.0478 0 0 0 
9.35474 1.05526 10.1778 0 0 0 
6.81447 1.12947 9.48932 0 0 0 
8.4667 1.97732 8.3128 0 0 0 
7.24238 0.735992 10.2428 0 0 0 
6.97793 1.07726 9.67438 0 0 0 
8.65711 1.72753 9.19069 0 0 0 
8.60162 1.73083 9.13052 0 0 0 
8.59419 1.82696 8.70047 0 0 0 
8.52831 1.81635 8.70114 0 0 0 
6.07261 0.976528 8.70423 0 0 0 
6.72339 1.15644 9.3919 0 0 0 
6.91516 1.17989 9.51641 0 0 0 
7.02567 1.01701 9.81525 0 0 0 
9.21843 0.89136 10.2832 0 0 0 
9.1434 0.95138 10.16 0 0 0 
8.61228 1.50173 9.31436 0 0 0 
8.88708 0.794012 10.4728 0 0 0 
8.71842 2.02417 8.11335 0 0 0 
9.20322 1.31491 9.99858 0 0 0 
6.31442 1.46497 8.28576 0 0 0 
7.00734 1.89318 7.28788 0 0 0 
7.06394 1.93689 7.28553 0 0 0 
7.3039 1.75259 8.32666 0 0 0 
8.017 2.17752 7.57051 0 0 0 
6.1274 0.804591 9.14909 0 0 0 
6.70601 0.856709 9.59283 0 0 0 
7.05254 0.884106 10.15 0 0 0 
8.2726 1.78583 8.69603 0 0 0 
9.41396 0.99984 10.1837 0 0 0 
6.7402 1.23287 9.31627 0 0 0 
6.62057 1.20625 9.25191 0 0 0 
7.09019 1.6084 8.60105 0 0 0 
10.1406 1.80729 9.80521 0 0 0 
8.75942 2.06974 7.94086 0 0 0 
6.19392 1.44438 7.91923 0 0 0 
5.9387 1.02238 8.47285 0 0 0 
6.21922 1.33748 8.65646 0 0 0 
9.36119 1.60923 9.90595 0 0 0 
6.25132 0.926821 9.26176 0 0 0 
5.96883 1.11994 8.67749 0 0 0 
8.48981 1.746 8.74932 0 0 0 
6.57157 1.06084 9.52341 0 0 0 
7.50229 0.815609 10.2512 0 0 0 
9.44731 0.912744 10.185 0 0 0 
9.24002 1.69183 9.746 0 0 0 
8.85795 0.922181 10.3 0 0 0 
9.53955 1.98575 9.29562 0 0 0 
7.32108 0.8932 10.1413 0 0 0 
6.35821 0.806564 9.30094 0 0 0 
6.92277 1.43283 8.85161 0 0 0 
9.17451 1.65418 9.72843 0 0 0 
9.19959 1.68176 9.70624 0 0 0 
7.63531 1.54292 9.05221 0 0 0 
8.48792 2.16426 7.53226 0 0 0 
6.80073 1.40011 8.84668 0 0 0 
5.93101 0.798398 8.26365 0 0 0 
9.21765 0.797949 10.3572 0 0 0 
9.19118 1.0567 10.0986 0 0 0 
9.91053 1.82061 9.76334 0 0 0 
10.0617 1.73493 9.93419 0 0 0 
6.52456 1.2381 9.07136 0 0 0 
6.46149 1.25289 9.01163 0 0 0 
8.13377 1.0138 10.2297 0 0 0 
7.85883 0.773252 10.3814 0 0 0 
7.66308 0.719221 10.388 0 0 0 
7.90267 0.735487 10.4043 0 0 0 
8.02982 0.756837 10.4095 0 0 0 
6.35786 1.41499 8.38812 0 0 0 
6.25831 1.01317 9.24569 0 0 0 
6.30738 0.998883 9.26996 0 0 0 
6.36474 1.44464 8.32784 0 0 0 
8.18793 2.28165 7.53481 0 0 0 
8.1296 2.25643 7.51941 0 0 0 
6.39975 0.843298 9.26304 0 0 0 
7.54197 1.73155 8.59293 0 0 0 
6.72757 1.40028 8.75779 0 0 0 
9.45053 0.676706 10.1803 0 0 0 
6.46891 0.840207 9.31707 0 0 0 
6.64156 0.781146 9.56634 0 0 0 
6.66279 0.758433 9.61498 0 0 0 
9.62489 1.41248 10.1028 0 0 0 
6.11334 0.866354 8.51052 0 0 0 
6.13154 0.743757 8.40174 0 0 0 
6.12492 0.791561 8.40751 0 0 0 
9.65043 1.31233 10.1696 0 0 0 
8.79039 2.15354 7.61409 0 0 0 
6.11422 1.09849 8.96403 0 0 0 
6.08916 1.01456 9.05356 0 0 0 
9.06428 0.770687 10.4301 0 0 0 
9.06591 1.23234 9.92111 0 0 0 
9.48267 1.22854 10.2151 0 0 0 
7.09191 1.97403 7.39154 0 0 0 
8.0653 0.730651 10.4319 0 0 0 
7.23868 0.683683 10.177 0 0 0 
8.4204 1.48842 9.28436 0 0 0 
7.39813 0.695242 10.2048 0 0 0 
6.78899 1.44261 8.66652 0 0 0 
6.79125 1.43529 8.73103 0 0 0 
6.98971 0.748674 9.92589 0 0 0 
9.98818 1.69716 9.9516 0 0 0 
6.97783 0.901912 10.0711 0 0 0 
6.40656 0.793182 9.38465 0 0 0 
6.12439 0.842335 8.57455 0 0 0 
6.94258 1.5113 8.66307 0 0 0 
9.20971 1.37224 9.9746 0 0 0 
8.26034 2.23343 7.59432 0 0 0 
6.20631 1.29457 8.69807 0 0 0 
6.09913 0.858923 9.07678 0 0 0 
6.08694 0.819901 9.02724 0 0 0 
7.2793 1.90608 7.7763 0 0 0 
6.14405 0.806337 8.48523 0 0 0 
6.19377 0.716992 9.35607 0 0 0 
6.10336 0.737217 9.09312 0 0 0 
5.88474 0.825054 8.21981 0 0 0 
8.77948 1.15821 9.86154 0 0 0 
6.20043 0.947345 9.21818 0 0 0 
8.70188 0.738215 10.5403 0 0 0 
9.27998 1.44718 9.98262 0 0 0 
5.8358 0.868361 8.18741 0 0 0 
7.21736 1.68392 8.41949 0 0 0 
6.16466 1.20337 8.74895 0 0 0 
8.24589 2.27846 7.55101 0 0 0 
7.24292 1.75795 8.28589 0 0 0 
5.89077 0.71001 8.27177 0 0 0 
8.8459 1.69138 9.27768 0 0 0 
6.07862 0.829536 8.39909 0 0 0 
6.48873 0.91186 9.29296 0 0 0 
6.14025 0.743824 8.5353 0 0 0 
8.60553 1.75863 9.11334 0 0 0 
9.23372 0.713305 10.3892 0 0 0 
8.75068 2.1582 7.54316 0 0 0 
8.33301 2.23893 7.57209 0 0 0 
7.25889 1.77888 8.15876 0 0 0 
7.87994 2.07691 7.49617 0 0 0 
9.1653 1.07705 10.0579 0 0 0 
9.0912 1.17699 9.97658 0 0 0 
10.0966 1.43529 10.1114 0 0 0 
6.68912 1.01708 9.70402 0 0 0 
8.64524 1.86128 8.39709 0 0 0 
8.58158 1.8588 8.44123 0 0 0 
9.02038 0.735044 10.4866 0 0 0 
9.56288 0.734038 10.1102 0 0 0 
8.30661 2.28144 7.53224 0 0 0 
9.63331 0.625729 10.0367 0 0 0 
5.96764 0.70303 8.32226 0 0 0 
8.89688 0.73275 10.585 0 0 0 
8.88096 1.97641 8.26234 0 0 0 
9.71671 2.0484 9.2519 0 0 0 
8.19121 0.741352 10.4204 0 0 0 
8.62522 1.77827 9.08414 0 0 0 
8.53596 0.748158 10.4825 0 0 0 
6.09804 0.59331 9.07628 0 0 0 
7.57551 0.70762 10.3751 0 0 0 
6.13294 0.681361 9.23207 0 0 0 
6.09601 0.585743 8.8133 0 0 0 
12.8958 0.832028 11.3663 0 0 0 
12.7307 0.453082 11.5086 0 0 0 
7.9726 1.01458 6.25497 0 0 0 
7.6307 1.10181 6.37792 0 0 0 
7.92598 0.992049 6.22549 0 0 0 
7.02931 1.87271 7.23547 0 0 0 
7.66066 1.99092 7.38716 0 0 0 
7.64792 1.89554 7.21125 0 0 0 
7.82302 2.00338 7.3366 0 0 0 
7.24782 1.75977 7.07764 0 0 0 
7.13397 1.9015 7.22155 0 0 0 
7.08631 1.53826 6.90227 0 0 0 
6.48127 1.17129 6.94036 0 0 0 
6.29406 0.925704 6.85761 0 0 0 
6.48269 1.00091 6.74876 0 0 0 
7.24213 1.87751 7.20464 0 0 0 
6.81132 1.1933 6.70358 0 0 0 
6.90478 0.986881 6.45355 0 0 0 
6.97953 1.30665 6.7262 0 0 0 
6.61978 0.95794 6.59437 0 0 0 
6.3812 0.797021 6.60907 0 0 0 
8.15968 1.02911 6.26684 0 0 0 
7.94525 1.00153 6.22701 0 0 0 
6.83136 1.62655 7.13093 0 0 0 
6.64715 1.51997 7.17052 0 0 0 
7.04028 1.82505 7.18441 0 0 0 
7.09228 1.90739 7.23405 0 0 0 
8.04394 2.19226 7.50359 0 0 0 
8.186 2.24063 7.4503 0 0 0 
8.10717 2.20311 7.43091 0 0 0 
8.10672 2.14336 7.34346 0 0 0 
8.17179 1.29689 6.55961 0 0 0 
7.94536 1.14377 6.40298 0 0 0 
8.20968 1.11132 6.35003 0 0 0 
8.34173 2.17697 7.37293 0 0 0 
8.29924 2.22821 7.40688 0 0 0 
8.18835 2.09894 7.28798 0 0 0 
7.18784 0.757341 6.00811 0 0 0 
7.24142 0.793515 6.04171 0 0 0 
7.23808 0.801603 6.07817 0 0 0 
7.70003 2.01585 7.44613 0 0 0 
8.24149 1.07079 6.30815 0 0 0 
7.95361 1.83555 7.06151 0 0 0 
8.06839 1.826 7.05463 0 0 0 
8.07729 2.03998 7.23695 0 0 0 
6.84741 1.46276 6.94335 0 0 0 
6.96214 1.62434 7.03607 0 0 0 
8.01142 2.14166 7.42595 0 0 0 
7.45449 0.861305 6.09229 0 0 0 
7.44794 0.840889 6.04345 0 0 0 
7.51752 0.885413 6.11259 0 0 0 
8.18233 2.15776 7.34147 0 0 0 
6.56839 0.795804 6.44854 0 0 0 
7.8665 1.93119 7.19111 0 0 0 
7.66822 1.80712 7.08597 0 0 0 
7.72046 0.962953 6.18197 0 0 0 
7.72503 0.959506 6.19984 0 0 0 
7.60449 0.902844 6.13308 0 0 0 
7.17355 1.94544 7.27015 0 0 0 
7.46052 0.995714 6.27749 0 0 0 
7.51494 1.9425 7.32259 0 0 0 
7.35981 1.95357 7.35973 0 0 0 
7.33662 1.91456 7.27262 0 0 0 
7.12438 0.740086 5.96932 0 0 0 
7.18736 0.767448 5.9979 0 0 0 
7.59678 2.01738 7.45508 0 0 0 
7.51439 2.01096 7.50637 0 0 0 
7.56855 1.5164 6.79756 0 0 0 
6.6318 1.25957 6.89241 0 0 0 
6.9517 0.812476 6.23616 0 0 0 
7.20249 0.932899 6.27761 0 0 0 
6.39428 0.690879 6.4572 0 0 0 
7.4986 1.98959 7.4397 0 0 0 
8.00019 2.0063 7.22543 0 0 0 
7.31477 1.97586 7.42519 0 0 0 
8.30841 2.25378 7.43934 0 0 0 
8.25186 2.28095 7.49588 0 0 0 
7.23169 1.93802 7.28522 0 0 0 
7.30827 0.819025 6.07043 0 0 0 
7.03713 0.666819 5.96214 0 0 0 
7.92495 1.43791 6.69914 0 0 0 
8.25688 1.65414 6.93768 0 0 0 
8.31041 1.90373 7.16185 0 0 0 
8.02699 2.10975 7.34741 0 0 0 
8.26159 1.18175 6.40428 0 0 0 
7.28391 0.813918 6.04578 0 0 0 
7.27864 0.883252 6.18635 0 0 0 
7.33899 0.849152 6.1134 0 0 0 
8.32653 2.2757 7.48153 0 0 0 
6.45237 0.614331 6.27535 0 0 0 
6.73661 0.779538 6.3095 0 0 0 
7.3708 0.838475 6.0593 0 0 0 
6.09092 0.637993 6.67742 0 0 0 
7.12738 1.05169 6.42925 0 0 0 
7.24383 1.37935 6.715 0 0 0 
7.54364 0.899837 6.13718 0 0 0 
6.84044 0.655787 6.08021 0 0 0 
8.11159 1.54985 6.81583 0 0 0 
8.26912 1.0106 6.26123 0 0 0 
7.78863 0.954478 6.19104 0 0 0 
7.42046 1.8211 7.1401 0 0 0 
8.38644 1.45097 6.76115 0 0 0 
7.04301 0.714683 6.06535 0 0 0 
7.4214 0.844785 6.05876 0 0 0 
8.38731 2.24822 7.45403 0 0 0 
8.46426 2.18341 7.48036 0 0 0 
8.71805 2.11709 7.46375 0 0 0 
8.65929 2.11314 7.45914 0 0 0 
8.64526 2.01509 7.36755 0 0 0 
8.61934 2.07114 7.41417 0 0 0 
8.43698 2.20215 7.44331 0 0 0 
8.55636 2.09774 7.43849 0 0 0 
8.48547 2.12282 7.41804 0 0 0 
8.51585 2.0511 7.35821 0 0 0 
8.82481 1.91969 8.35082 0 0 0 
8.97042 1.97686 8.36936 0 0 0 
9.42965 2.08158 8.84148 0 0 0 
9.38679 2.07007 8.75214 0 0 0 
9.57598 2.10432 8.74883 0 0 0 
9.66182 2.13134 8.7755 0 0 0 
9.7089 2.15083 8.81304 0 0 0 
9.66357 2.15457 8.85661 0 0 0 
9.02417 1.80599 9.18643 0 0 0 
9.012 1.85719 9.10224 0 0 0 
9.18835 1.91103 9.17089 0 0 0 
9.04417 2.02259 8.22723 0 0 0 
8.88709 1.9863 8.17929 0 0 0 
8.94772 2.02315 8.11229 0 0 0 
9.32502 2.03844 9.0126 0 0 0 
9.34502 2.04901 9.13995 0 0 0 
9.26555 2.00036 9.0894 0 0 0 
8.55851 1.85331 8.58116 0 0 0 
8.67662 1.83589 8.89104 0 0 0 
8.66025 1.8198 8.97114 0 0 0 
8.74703 1.84854 8.90775 0 0 0 
9.5981 2.07045 9.22262 0 0 0 
9.14913 2.02717 8.35948 0 0 0 
9.62495 2.10002 9.14572 0 0 0 
9.81764 2.11348 9.13991 0 0 0 
9.92629 2.11693 9.03934 0 0 0 
9.89859 2.12936 9.06566 0 0 0 
9.85758 2.14463 9.05299 0 0 0 
9.24387 2.0368 8.40797 0 0 0 
9.28004 2.0222 8.30886 0 0 0 
9.41274 2.04168 8.51554 0 0 0 
8.99762 1.72785 9.26002 0 0 0 
8.66491 1.75464 9.16801 0 0 0 
8.75319 1.74029 9.23483 0 0 0 
8.79574 1.77221 9.17016 0 0 0 
8.79723 1.72816 9.26077 0 0 0 
9.27108 2.04241 8.54626 0 0 0 
9.20909 2.03087 8.63652 0 0 0 
8.91013 1.72427 9.24374 0 0 0 
8.86158 1.75084 9.21874 0 0 0 
8.94034 1.78931 9.1727 0 0 0 
8.73296 1.88119 8.35603 0 0 0 
8.92363 1.8978 8.91661 0 0 0 
8.83503 1.84463 9.01544 0 0 0 
8.89996 1.91736 8.70108 0 0 0 
9.42585 2.07914 9.17318 0 0 0 
9.1576 2.0351 8.17323 0 0 0 
9.41722 2.05814 9.2082 0 0 0 
9.41504 1.98908 9.25624 0 0 0 
9.30827 1.9958 9.19492 0 0 0 
8.72708 1.86379 8.6121 0 0 0 
8.67794 1.86456 8.44212 0 0 0 
9.90299 2.08962 9.15357 0 0 0 
8.65519 1.84721 8.62442 0 0 0 
9.96168 2.07243 9.12585 0 0 0 
9.97492 2.06975 9.03419 0 0 0 
9.09719 2.051 8.11695 0 0 0 
8.98652 2.05425 8.01666 0 0 0 
9.51282 2.07082 8.64821 0 0 0 
8.89422 2.03761 8.04827 0 0 0 
8.84637 1.99003 8.12983 0 0 0 
9.66385 2.15714 8.9013 0 0 0 
9.67557 2.14175 9.0027 0 0 0 
9.59242 2.12458 9.00001 0 0 0 
9.50526 2.08243 9.19756 0 0 0 
9.30371 1.9452 9.24321 0 0 0 
9.71632 2.16362 8.90109 0 0 0 
9.80407 2.15428 8.95296 0 0 0 
9.51467 2.05499 9.23273 0 0 0 
9.87925 2.14947 8.98704 0 0 0 
10.1349 1.9785 9.29573 0 0 0 
10.0561 2.00433 9.12036 0 0 0 
9.00439 1.90878 8.9704 0 0 0 
9.01992 2.05524 7.93722 0 0 0 
9.06441 2.0595 8.01764 0 0 0 
8.82865 2.07689 7.94714 0 0 0 
9.49529 2.09546 9.06504 0 0 0 
9.18926 1.99093 8.93535 0 0 0 
8.84031 2.13846 7.72625 0 0 0 
8.806 2.14136 7.76304 0 0 0 
9.23581 1.96421 9.14142 0 0 0 
8.88788 2.09303 7.95011 0 0 0 
9.91356 2.12251 8.95475 0 0 0 
8.84055 2.11932 7.85882 0 0 0 
8.82871 2.11843 7.64942 0 0 0 
8.94251 2.07701 7.95524 0 0 0 
8.8986 2.11353 7.88424 0 0 0 
8.86664 2.13307 7.81801 0 0 0 
10.0258 2.02951 9.18466 0 0 0 
9.16975 1.96175 9.02454 0 0 0 
8.61191 1.23977 6.51179 0 0 0 
8.57607 1.2549 6.50158 0 0 0 
8.62994 1.18356 6.43623 0 0 0 
9.57882 2.03525 8.55677 0 0 0 
9.4756 2.00398 8.39363 0 0 0 
9.64948 1.2415 6.71104 0 0 0 
9.6602 1.26495 6.6857 0 0 0 
9.68959 1.26161 6.71396 0 0 0 
9.88008 1.33649 6.8753 0 0 0 
9.85343 1.34158 6.79948 0 0 0 
9.96519 1.36565 6.87834 0 0 0 
8.83976 1.14114 6.47357 0 0 0 
8.88741 1.11855 6.44175 0 0 0 
9.00232 1.1103 6.50435 0 0 0 
8.6165 1.83485 7.21743 0 0 0 
8.75989 1.90915 7.34978 0 0 0 
8.72961 2.04401 7.42022 0 0 0 
9.11432 2.05232 8.03434 0 0 0 
10.0945 1.39255 6.98403 0 0 0 
9.98472 1.36577 6.99029 0 0 0 
9.9773 1.4615 7.61898 0 0 0 
9.83441 1.5399 7.58887 0 0 0 
10.0271 1.42534 7.47567 0 0 0 
9.37796 1.9995 8.29242 0 0 0 
8.92546 2.02642 7.64926 0 0 0 
8.87874 2.1034 7.70993 0 0 0 
8.82683 2.08678 7.57005 0 0 0 
8.60562 1.28274 6.58585 0 0 0 
8.50911 1.37255 6.6912 0 0 0 
8.44852 1.2942 6.55354 0 0 0 
8.53845 1.54545 6.91075 0 0 0 
8.5707 1.628 7.01071 0 0 0 
9.94678 1.40635 7.23622 0 0 0 
10.0345 1.39141 7.27368 0 0 0 
9.99703 1.42214 7.38161 0 0 0 
9.00636 1.55998 7.12953 0 0 0 
8.39926 1.27989 6.47652 0 0 0 
8.31354 1.22649 6.42821 0 0 0 
8.26639 1.20126 6.38889 0 0 0 
9.6874 1.59802 7.55526 0 0 0 
9.70497 1.64995 7.75014 0 0 0 
9.5384 1.72903 7.73182 0 0 0 
8.4255 1.27992 6.50909 0 0 0 
8.41525 2.17985 7.40728 0 0 0 
9.26493 1.51839 7.19351 0 0 0 
9.17495 1.70112 7.41728 0 0 0 
9.57846 1.88016 8.15149 0 0 0 
9.52792 1.94104 8.25375 0 0 0 
9.47565 1.8816 8.00436 0 0 0 
9.04203 2.03092 7.86157 0 0 0 
8.26906 1.17949 6.38673 0 0 0 
8.6918 1.17636 6.46624 0 0 0 
8.67193 1.14543 6.41119 0 0 0 
8.70405 1.15065 6.41735 0 0 0 
8.9353 1.1927 6.59951 0 0 0 
8.89555 1.39383 6.85829 0 0 0 
9.80157 1.32257 6.91411 0 0 0 
9.67872 1.31708 6.94316 0 0 0 
9.71627 1.29094 6.8619 0 0 0 
10.1957 1.271 7.39495 0 0 0 
10.1563 1.22548 7.50733 0 0 0 
10.1313 1.26521 7.44912 0 0 0 
9.88446 1.50017 7.69841 0 0 0 
9.95176 1.46344 7.6938 0 0 0 
9.4251 1.51892 7.26171 0 0 0 
9.36367 1.7373 7.60797 0 0 0 
8.23759 1.11933 6.33575 0 0 0 
9.67889 1.92163 8.40771 0 0 0 
9.02738 1.9751 7.70399 0 0 0 
9.20906 2.01557 8.06932 0 0 0 
9.58294 1.38894 7.08198 0 0 0 
9.31907 1.25601 6.81218 0 0 0 
9.22383 1.12137 6.5395 0 0 0 
9.20807 1.13144 6.51908 0 0 0 
9.31147 1.15053 6.56018 0 0 0 
9.50299 1.19368 6.7352 0 0 0 
9.37093 1.1589 6.62204 0 0 0 
9.52548 1.19272 6.71229 0 0 0 
9.49536 1.23222 6.79957 0 0 0 
9.72701 2.02428 8.62815 0 0 0 
9.61502 1.98221 8.46105 0 0 0 
10.0193 1.37997 7.11809 0 0 0 
9.83544 1.36972 7.06353 0 0 0 
10.0006 1.44503 7.68414 0 0 0 
9.71364 1.48365 7.30679 0 0 0 
9.79224 1.41809 7.19108 0 0 0 
8.36976 1.26447 6.47951 0 0 0 
10.0907 1.37553 7.2827 0 0 0 
8.41603 2.10611 7.35702 0 0 0 
8.82023 1.74525 7.24397 0 0 0 
10.0864 1.40812 7.56325 0 0 0 
10.0932 1.37238 7.48863 0 0 0 
9.76836 2.14334 8.84549 0 0 0 
9.727 2.11746 8.75336 0 0 0 
9.6158 1.77824 7.9806 0 0 0 
9.54765 1.78943 7.88726 0 0 0 
9.14363 1.93751 7.77753 0 0 0 
9.12708 1.81637 7.55242 0 0 0 
9.67231 2.09102 8.6993 0 0 0 
9.54352 1.62752 7.51641 0 0 0 
9.42814 1.21691 6.56859 0 0 0 
9.4203 1.18606 6.59786 0 0 0 
9.74681 1.29006 6.82176 0 0 0 
9.71264 1.26753 6.75783 0 0 0 
9.78118 1.30921 6.78864 0 0 0 
8.89459 2.11664 7.79616 0 0 0 
8.97431 2.06795 7.87824 0 0 0 
10.1248 1.38429 7.10426 0 0 0 
10.1535 1.36563 7.25012 0 0 0 
10.1344 1.3492 7.33165 0 0 0 
9.26152 1.13108 6.58469 0 0 0 
9.20149 1.12336 6.57595 0 0 0 
9.01516 1.68756 7.29809 0 0 0 
9.33478 1.94687 8.01546 0 0 0 
10.2006 1.39101 7.11826 0 0 0 
8.92298 1.97256 7.56408 0 0 0 
8.8716 1.91614 7.44864 0 0 0 
8.90688 1.84125 7.40198 0 0 0 
10.2096 1.34633 7.28161 0 0 0 
9.23145 2.01905 8.19807 0 0 0 
9.88349 2.03789 8.79494 0 0 0 
9.80175 2.10321 8.7938 0 0 0 
9.37326 1.16652 6.66455 0 0 0 
9.39521 1.18853 6.72171 0 0 0 
9.87369 2.11115 8.88165 0 0 0 
9.47877 1.21031 6.60404 0 0 0 
9.52064 1.23657 6.6156 0 0 0 
9.51707 1.19988 6.65486 0 0 0 
9.68017 1.25469 6.77685 0 0 0 
9.58398 1.23313 6.78355 0 0 0 
10.1062 1.32235 7.44086 0 0 0 
10.0899 1.36789 7.38441 0 0 0 
10.1073 1.3882 7.59244 0 0 0 
9.79342 1.91386 8.54219 0 0 0 
9.69332 1.82898 8.26172 0 0 0 
9.13128 1.12225 6.56623 0 0 0 
9.38287 1.21071 6.54828 0 0 0 
9.93483 2.05576 8.88235 0 0 0 
9.86104 1.48038 7.40147 0 0 0 
8.34951 1.27055 6.50987 0 0 0 
8.27083 1.28851 6.54723 0 0 0 
8.29894 1.23242 6.45763 0 0 0 
8.78478 2.15382 7.5669 0 0 0 
10.0304 1.43825 7.63987 0 0 0 
8.79077 2.05192 7.4798 0 0 0 
8.77315 2.13914 7.52566 0 0 0 
10.1189 1.25965 7.54822 0 0 0 
9.11974 1.08769 6.49396 0 0 0 
9.12182 1.08794 6.50777 0 0 0 
10.239 1.30051 7.34273 0 0 0 
10.3058 1.1813 7.39917 0 0 0 
8.51276 1.27565 6.50098 0 0 0 
10.3261 1.34892 7.2637 0 0 0 
10.3303 1.28001 7.33797 0 0 0 
9.47361 1.22626 6.58291 0 0 0 
10.2586 1.3673 7.22441 0 0 0 
9.02628 1.0986 6.46889 0 0 0 
9.45637 1.22996 6.5594 0 0 0 
9.7984 1.3404 6.75936 0 0 0 
10.2938 1.3955 7.16548 0 0 0 
2.81809 1.90276 6.50114 0 0 0 
2.81212 1.85293 6.53343 0 0 0 
2.74688 1.86177 6.48382 0 0 0 
2.76318 1.80084 6.55992 0 0 0 
2.84161 1.80924 6.58798 0 0 0 
2.84133 1.77306 6.61 0 0 0 
3.48837 1.04915 6.73491 0 0 0 
3.45188 1.23019 6.73475 0 0 0 
3.7253 1.09186 6.78193 0 0 0 
4.30663 0.752029 6.73265 0 0 0 
4.36834 0.761485 6.74444 0 0 0 
4.40064 0.71189 6.77292 0 0 0 
2.3809 1.70037 6.42683 0 0 0 
2.36581 1.65072 6.45756 0 0 0 
2.31716 1.65251 6.43544 0 0 0 
4.39663 0.909807 6.64493 0 0 0 
4.44017 0.868706 6.66127 0 0 0 
4.35001 0.862051 6.69088 0 0 0 
4.12403 2.12273 6.90486 0 0 0 
4.17319 2.13207 6.89458 0 0 0 
4.14316 2.08672 6.90193 0 0 0 
3.67348 2.22813 6.838 0 0 0 
3.62128 2.12708 6.80991 0 0 0 
3.56086 2.19014 6.79992 0 0 0 
2.645 1.82816 6.45692 0 0 0 
2.64131 1.85634 6.43827 0 0 0 
2.1529 1.64985 6.34933 0 0 0 
2.29687 1.70921 6.36443 0 0 0 
4.22615 0.819166 6.71553 0 0 0 
4.18205 0.916755 6.70689 0 0 0 
4.28272 0.893306 6.68974 0 0 0 
3.92456 1.62059 6.75852 0 0 0 
3.8205 1.65918 6.77111 0 0 0 
3.93888 1.77588 6.80064 0 0 0 
2.52188 1.12312 6.66423 0 0 0 
2.46301 1.1941 6.6807 0 0 0 
3.06929 1.85905 6.65905 0 0 0 
3.05691 1.91353 6.62235 0 0 0 
3.11975 1.9503 6.62218 0 0 0 
3.95454 2.27534 6.82085 0 0 0 
3.93379 2.19847 6.82302 0 0 0 
3.88967 2.23477 6.80384 0 0 0 
2.83286 1.96123 6.4991 0 0 0 
2.87154 1.93211 6.51295 0 0 0 
2.09151 1.61905 6.34626 0 0 0 
4.07274 1.54551 6.71102 0 0 0 
4.26335 1.51836 6.62109 0 0 0 
4.1059 1.41442 6.68847 0 0 0 
2.48686 1.38409 6.62989 0 0 0 
3.92514 0.943634 6.76065 0 0 0 
4.07507 0.827101 6.73096 0 0 0 
3.96641 0.818602 6.74076 0 0 0 
